0.0004 -3.9426 1.8287 1.0000
4.3327 -0.2193 3.3998 1.0000
-8.8001 2.1036 2.1705 0.0000
-0.5062 0.3719 -1.7500 2.0000
5.0981 0.3146 3.0358 1.0000
-8.8001 2.5344 1.8430 0.0000
-4.2805 -2.1996 1.2466 0.0000
-1.8244 1.1638 4.8920 1.0000
-2.8234 2.6712 5.4021 1.0000
0.0010 6.2233 1.0947 0.0000
-8.8001 0.9048 3.5330 1.0000
-5.5733 5.1877 3.0576 1.0000
0.0000 1.7639 4.5548 1.0000
5.4539 2.2004 0.7205 0.0000
-7.1297 6.6004 0.9488 0.0000
4.9621 -3.2637 4.0245 1.0000
1.6943 -0.1555 3.3563 1.0000
0.0002 -2.5207 2.2205 1.0000
-8.7990 3.4414 1.4618 0.0000
5.5748 0.7935 -1.7500 2.0000
-0.2520 6.5978 -1.7500 2.0000
-0.0043 5.2663 -1.7500 2.0000
6.8089 2.2004 -0.1434 0.0000
-3.6346 -1.0694 2.8115 1.0000
-5.6200 6.6004 1.3739 0.0000
-4.5620 -0.7174 3.1394 1.0000
5.6023 -6.5996 1.5149 0.0000
1.2382 -2.2147 4.7397 1.0000
-8.7990 5.0907 1.2925 0.0000
-1.7567 -2.1996 0.2133 0.0000
6.1190 1.9372 1.9295 1.0000
7.5773 2.2004 -0.1388 0.0000
0.0010 5.9848 -1.0141 0.0000
-8.7990 -1.9737 -1.0430 0.0000
1.0731 -2.5211 4.5308 1.0000
1.6426 -5.3172 -1.7500 2.0000
6.9569 -6.5996 1.1897 0.0000
-4.3564 6.3059 2.0158 1.0000
-2.2739 3.0035 -1.7500 2.0000
0.3076 -5.8063 2.2909 1.0000
-6.2727 2.9998 5.0959 1.0000
-2.8129 6.6004 1.7159 0.0000
-3.9970 3.1108 4.9925 1.0000
5.8369 2.2004 -0.8949 0.0000
7.6610 -4.0182 -1.7500 2.0000
8.8010 -6.0640 -0.7728 0.0000
0.8046 1.0099 -1.7500 2.0000
-8.7990 5.7135 -0.8803 0.0000
-4.1940 4.7997 3.4191 1.0000
6.7791 2.2004 0.7009 0.0000
-5.3180 -0.7629 -1.7500 2.0000
-5.8136 -2.1996 0.9064 0.0000
1.9428 1.3490 -1.7500 2.0000
8.8010 -0.6539 -0.8423 0.0000
1.4236 2.2004 -1.3716 0.0000
8.7737 -0.4520 3.5585 1.0000
-7.0824 -2.1996 -0.9072 0.0000
-8.7990 -0.5903 -0.4443 0.0000
0.0005 4.2994 1.7780 0.0000
0.4241 -6.4248 1.8692 1.0000
-3.1289 0.5254 -1.7500 2.0000
0.3759 1.6267 2.1412 1.0000
-2.3751 6.6004 -0.8393 0.0000
0.0010 4.3460 -0.9485 0.0000
8.1068 0.2378 3.0882 1.0000
8.6076 0.6289 2.8215 1.0000
2.1004 -6.5996 1.1386 0.0000
-8.7990 1.9718 1.5683 0.0000
-1.4885 -0.4790 3.3615 1.0000
-3.7734 -2.1996 1.7212 0.0000
-3.8032 3.9305 4.2288 1.0000
8.8010 -1.3225 3.5072 1.0000
-8.7990 -1.4936 0.1326 0.0000
8.5753 -6.5996 1.4261 0.0000
1.3658 2.2004 1.4509 0.0000
5.1955 0.3583 -1.7500 2.0000
5.8942 -4.2876 3.3263 1.0000
-1.1748 6.6004 -0.7285 0.0000
-3.6759 6.6004 -0.5730 0.0000
8.8010 1.2754 1.6777 0.0000
-0.6684 6.6004 -0.1770 0.0000
8.8010 -3.9458 3.1365 1.0000
8.8010 -3.6224 -1.0281 0.0000
-6.0177 5.6933 -1.7500 2.0000
-8.7973 6.3539 -1.7500 0.0000
2.4841 -6.5996 1.5071 0.0000
5.3689 -5.0087 2.8347 1.0000
8.8010 -5.3281 -1.3971 0.0000
-8.7990 -0.1745 -0.2434 0.0000
5.2518 -6.5996 -0.1762 0.0000
-6.2087 2.2765 5.7698 1.0000
-4.0583 -1.8624 2.0727 1.0000
-1.0411 -0.8408 -1.7500 2.0000
0.0010 2.3638 0.0536 1.0000
7.7242 2.2004 -1.3965 0.0000
-5.0173 5.8974 -1.7500 2.0000
-3.3336 -0.1867 3.6338 1.0000
-5.4983 4.4825 3.7146 1.0000
6.6578 -6.5996 -0.6552 0.0000
-0.1918 5.8149 -1.7500 2.0000
1.3550 -4.1069 3.4496 1.0000
-8.8001 1.9405 3.5966 1.0000
8.6592 -4.5682 -1.7500 2.0000
-8.6241 -2.2037 1.7547 0.0000
-8.7990 -0.5263 -1.4078 0.0000
8.3222 -5.6140 2.4220 1.0000
0.0010 4.0385 -0.8448 0.0000
-4.0712 6.4668 1.8659 1.0000
2.9123 -5.8530 2.2590 1.0000
5.9587 -5.9641 -1.7500 2.0000
0.0004 3.7039 2.2576 1.0000
7.4531 1.3677 2.3178 1.0000
1.5511 -2.5201 4.5315 1.0000
0.0010 -2.9847 0.9562 0.0000
-4.1765 1.2702 -1.7500 2.0000
-6.4171 -2.1996 0.9940 0.0000
0.0010 6.0249 0.4587 0.0000
-8.1504 3.6274 -1.7500 0.0000
-1.0016 6.6004 0.6565 0.0000
6.5850 -5.6389 2.4050 1.0000
0.0010 3.5649 -1.1362 0.0000
1.6425 2.2004 0.2527 0.0000
0.8679 2.2004 -0.8985 0.0000
7.3980 2.1965 1.7527 0.0000
1.2785 -6.5996 1.7143 0.0000
0.0010 5.8998 1.0044 0.0000
5.0215 0.6295 2.8210 1.0000
-1.3176 6.6004 -1.3671 0.0000
-6.1113 0.9749 4.7160 1.0000
-3.8882 1.9193 5.5958 1.0000
0.0010 -5.5633 0.9152 0.0000
1.6663 -6.4917 -1.7500 2.0000
8.1962 -4.0117 -1.7500 2.0000
-0.4465 2.9233 5.1672 1.0000
-0.3608 -2.1996 1.7047 1.0000
-8.3759 2.4713 5.5883 1.0000
0.0569 0.7531 2.7368 1.0000
0.3922 -6.5996 -0.7632 0.0000
3.7997 -1.5424 4.3019 1.0000
-4.5557 0.2710 4.0602 1.0000
-7.2390 1.2423 4.9652 1.0000
6.8560 -1.8604 4.5187 1.0000
-3.2450 6.6004 -0.2142 0.0000
6.9409 -6.5996 -0.8350 0.0000
0.0010 -2.4682 -0.7117 0.0000
-7.9511 4.3908 3.8000 1.0000
2.3591 -0.3255 -1.7500 2.0000
8.8010 -0.0234 -1.7338 0.0000
8.6385 2.2004 -0.2472 0.0000
8.8010 -0.9154 1.7597 0.0000
-7.2587 3.5714 4.5634 1.0000
-8.7990 0.4085 -1.6992 0.0000
8.8010 -3.6965 0.5593 0.0000
0.0010 -4.9386 2.8372 1.0000
4.0635 -4.5991 3.1140 1.0000
1.6977 -1.9652 4.5902 1.0000
-8.8001 3.5674 2.7393 1.0000
3.0926 -1.4376 -1.7500 2.0000
0.0010 2.9848 -1.0357 0.0000
-8.7990 2.5109 -0.3876 0.0000
4.1914 0.4347 -1.7500 2.0000
7.0535 -6.5851 -1.7500 2.0000
-1.9425 6.6004 0.3134 0.0000
0.0010 -5.2676 0.5200 0.0000
1.6105 1.6321 2.1375 1.0000
6.2918 2.2004 0.0463 0.0000
-8.7846 4.9531 3.2762 1.0000
0.0010 2.7448 -0.4945 0.0000
5.1263 -2.7562 4.3705 1.0000
-0.2359 -2.1996 1.2258 0.0000
3.4948 1.5245 2.2108 1.0000
4.5533 -6.5903 -1.7500 2.0000
2.6030 -1.9119 -1.7500 2.0000
0.4553 1.9662 1.9097 1.0000
-3.1006 4.5113 -1.7500 2.0000
-4.6900 6.6004 -0.2887 0.0000
0.5843 2.2004 1.7066 1.0000
3.8182 -6.5996 -1.0881 0.0000
-6.2612 6.6004 0.0037 0.0000
-5.8114 2.8284 5.2556 1.0000
0.0001 0.9479 4.4083 1.0000
6.9111 1.0387 2.5421 1.0000
0.0010 -3.1742 -1.2730 0.0000
6.1039 -1.6539 -1.7500 2.0000
3.1891 -1.0562 3.9704 1.0000
8.8010 1.9493 -1.6087 0.0000
0.0010 -3.6818 0.7508 0.0000
0.0010 -6.3329 0.6203 0.0000
3.1928 -6.2321 2.0005 1.0000
-8.3804 6.6004 0.7905 0.0000
-7.0200 -1.5822 2.3337 1.0000
-7.8377 4.8505 3.3718 1.0000
-8.7990 -0.2238 1.0170 0.0000
2.4789 2.2004 1.2815 0.0000
-6.5588 6.6004 0.3511 0.0000
0.0010 2.3448 -1.3824 0.0000
8.8010 -3.0637 -1.0857 0.0000
-8.7990 5.6746 1.2734 0.0000
7.9330 2.2004 -0.0886 0.0000
-0.4102 6.6004 0.7836 0.0000
2.4059 -6.5996 0.6227 0.0000
-0.8954 0.7811 -1.7500 2.0000
4.5849 2.2004 1.7438 0.0000
-8.7990 -2.1690 -0.5610 0.0000
-0.0000 1.7716 5.4292 1.0000
-7.5691 -1.7650 -1.7500 0.0000
8.5222 -1.2486 -1.7500 0.0000
3.0131 2.2004 -0.3146 0.0000
-1.2556 -2.1996 -0.9151 0.0000
5.6206 -6.5996 -0.9225 0.0000
-1.6350 6.4629 -1.7500 2.0000
6.9892 -6.5996 0.8482 0.0000
-7.3307 -1.4070 2.4970 1.0000
7.4429 1.7965 2.0254 1.0000
6.7987 -6.5996 -0.3462 0.0000
0.0010 -5.9884 1.6995 0.0000
7.3952 -5.1666 2.7270 1.0000
-5.6476 0.1017 3.9025 1.0000
5.7206 -3.4047 -1.7500 2.0000
3.8377 -3.4443 -1.7500 2.0000
0.7035 1.3535 2.3274 1.0000
0.5237 -6.2604 -1.7500 2.0000
-1.7367 5.1936 3.0521 1.0000
-2.9638 6.1742 2.1385 1.0000
-8.1080 -0.8396 3.0255 1.0000
8.8010 -1.5165 3.0853 1.0000
0.1641 -2.4256 -1.7500 2.0000
-3.8352 6.1836 2.1297 1.0000
-0.6240 -2.1996 0.0578 0.0000
-2.1374 5.9943 2.3062 1.0000
0.0010 5.4466 -0.3584 0.0000
2.8204 -6.1712 2.0420 1.0000
3.2316 -3.8673 3.6129 1.0000
8.8010 0.9757 1.6234 0.0000
3.6358 0.0073 3.2453 1.0000
-1.7060 6.6004 -1.3460 0.0000
-8.7990 0.1460 1.7359 0.0000
1.1781 2.2004 0.6411 0.0000
-8.7990 1.8731 -1.7224 0.0000
0.0010 4.9203 -1.5819 0.0000
5.1417 -6.5996 -0.6629 0.0000
4.7704 2.2004 -0.2309 0.0000
-8.8001 0.8907 2.8739 1.0000
8.8010 1.4862 -0.5865 0.0000
-7.6508 -0.1889 -1.7500 0.0000
8.8010 -1.3107 -0.5520 0.0000
-4.8158 2.3195 -1.7500 2.0000
-2.9336 4.9483 3.2806 1.0000
7.8953 1.0631 2.5254 1.0000
1.8551 0.3743 2.9951 1.0000
-2.1328 6.6004 -1.1171 0.0000
-4.1884 0.1782 3.9738 1.0000
3.3062 0.9262 2.6188 1.0000
-8.7990 2.7033 -0.7384 0.0000
-1.1121 6.6004 1.7279 0.0000
-2.8476 2.3739 5.6790 1.0000
8.8010 -0.2940 -0.7025 0.0000
-8.8001 3.3129 3.4954 1.0000
0.0010 3.1126 -0.5415 0.0000
-4.7768 6.6004 1.2048 0.0000
1.4507 -6.5996 -1.6543 0.0000
3.0719 -2.9028 -1.7500 2.0000
0.0010 4.9888 0.4284 0.0000
-8.6742 -1.3128 2.5847 1.0000
0.0737 -4.8688 -1.7500 2.0000
-4.6287 2.6968 5.3782 1.0000
4.4552 -0.6578 -1.7500 2.0000
5.7064 -6.5996 0.5734 0.0000
8.8010 -5.8144 1.6901 0.0000
8.8010 -2.5592 3.3754 1.0000
0.4938 2.2004 -0.0688 0.0000
5.8950 2.2004 1.7472 0.0000
-8.8001 2.6409 4.3575 1.0000
-1.5872 -2.1996 -0.9749 0.0000
0.4109 -2.1951 4.7469 1.0000
4.6674 -6.5996 0.5323 0.0000
3.0384 -4.2301 3.3655 1.0000
7.2698 0.1082 -1.7500 2.0000
-0.1564 0.4556 4.2322 1.0000
-3.0098 4.2636 3.9185 1.0000
-7.3803 -1.7590 2.1690 1.0000
0.0010 -5.8994 0.5759 0.0000
7.7156 0.2409 3.0861 1.0000
8.6594 -2.4639 -1.7500 2.0000
1.9867 -5.1949 2.7077 1.0000
2.1379 -6.5996 0.3367 0.0000
0.0010 -5.5701 0.3401 0.0000
3.9518 0.3511 3.0109 1.0000
3.4275 -5.0954 2.7756 1.0000
4.7769 -6.5996 0.2047 0.0000
-2.4494 6.4328 1.8976 1.0000
-1.0064 -0.9282 2.9430 1.0000
8.8010 -6.4002 1.1787 0.0000
5.9462 0.5627 2.8666 1.0000
4.7442 -5.8034 2.2928 1.0000
-4.3313 3.9893 -1.7500 0.0000
3.9799 -5.5059 2.4957 1.0000
8.8010 0.9464 1.7797 0.0000
-3.4709 6.3600 1.9654 1.0000
5.1106 2.2004 0.7063 0.0000
-7.3997 1.3770 -1.7500 0.0000
5.5130 -6.5996 0.3227 0.0000
6.6700 -4.4176 -1.7500 2.0000
-1.0723 6.3514 -1.7500 2.0000
3.6414 2.1472 1.7863 1.0000
4.4803 -1.7910 4.4714 1.0000
0.9649 -4.9755 2.8573 1.0000
-7.6127 3.1898 4.9189 1.0000
0.7955 -4.6507 3.0788 1.0000
-0.7020 1.5291 5.2323 1.0000
-8.7990 6.2817 1.2616 0.0000
8.0662 -3.1794 -1.7500 2.0000
4.8286 0.8402 -1.7500 2.0000
2.1573 -1.1451 4.0310 1.0000
-8.7731 4.4947 3.7033 1.0000
6.1816 -5.0144 -1.7500 2.0000
4.1860 2.2004 -1.4476 0.0000
1.5029 2.2004 0.5701 0.0000
8.8010 -0.6496 2.2754 0.0000
-7.3581 5.5771 -1.7500 2.0000
-3.5513 0.8444 4.5945 1.0000
0.0006 -2.0437 3.8360 1.0000
-3.7422 -2.1996 -0.2354 0.0000
0.0010 5.0779 -0.9470 0.0000
-1.1210 6.6004 1.1394 0.0000
4.6493 0.2658 3.0691 1.0000
-6.9629 3.1154 -1.7500 2.0000
7.5373 -1.9925 -1.7500 2.0000
-8.7674 0.1562 -1.7500 0.0000
0.0010 2.4011 -0.8199 0.0000
-5.9744 3.7067 -1.7500 2.0000
7.8804 1.8516 1.9879 1.0000
-8.7470 1.8062 5.4905 1.0000
-8.3494 6.6004 -1.4373 0.0000
8.2349 2.2004 0.6630 0.0000
6.9545 -0.5851 3.6492 1.0000
3.0801 2.0801 1.8320 1.0000
7.2575 -3.7694 -1.7500 2.0000
-2.2851 -2.1996 -1.4140 0.0000
-5.8349 4.6821 3.5286 1.0000
-8.8001 1.1340 4.6569 1.0000
8.2773 -6.4511 1.8513 0.0000
0.0010 5.7948 -0.4363 0.0000
7.9544 -6.5996 1.7489 0.0000
8.8010 0.9635 1.0492 0.0000
-3.9846 6.6004 0.1797 0.0000
0.0010 -2.4444 1.0224 0.0000
6.6693 -3.6177 3.7831 1.0000
-8.7990 5.4592 0.7279 0.0000
-4.5718 -2.1996 1.4101 0.0000
-8.3818 1.9663 5.6396 1.0000
8.8010 -6.0710 -1.7035 0.0000
4.6842 -1.2071 -1.7500 2.0000
5.4905 2.2004 -0.9956 0.0000
8.8010 -1.8685 -0.3482 0.0000
7.2959 -6.5996 1.1535 0.0000
5.8565 2.2004 1.4045 0.0000
6.4027 -0.4740 3.5734 1.0000
-1.8082 4.4458 3.7488 1.0000
-7.2437 0.7109 4.4700 1.0000
2.8371 -3.6223 3.7800 1.0000
6.7076 -6.5996 0.6374 0.0000
-8.7615 -0.7497 3.1093 1.0000
7.1100 -2.6533 4.4406 1.0000
-6.5764 3.5606 4.5735 1.0000
-5.4994 0.4961 4.2699 1.0000
-7.2824 -2.1996 -0.5271 0.0000
-8.7990 4.5078 1.7239 0.0000
-8.8001 0.3947 3.3851 1.0000
3.8237 -0.7407 -1.7500 2.0000
-8.7990 -1.6101 -0.6642 0.0000
0.0003 -2.3906 2.8166 1.0000
7.2553 2.2004 -1.6916 2.0000
-1.0775 -2.1996 1.2897 0.0000
8.8010 0.6157 -0.7863 0.0000
8.8010 0.4460 0.4032 0.0000
0.4662 -1.6851 4.3992 1.0000
3.1142 -0.3069 3.4595 1.0000
4.9614 -6.5996 -1.2330 0.0000
-2.1372 1.2745 -1.7500 2.0000
-0.3646 6.6004 -0.2810 0.0000
-6.4686 -2.1996 1.3101 0.0000
-0.7536 3.0897 5.0122 1.0000
-8.7990 1.2391 0.1661 0.0000
-2.9944 -2.1996 1.4482 0.0000
-0.5962 -0.2766 -1.7500 2.0000
6.7548 -5.6750 -1.7500 2.0000
8.8010 0.7362 0.0126 0.0000
0.0010 5.9462 -1.7053 0.0000
-8.1164 3.1046 4.9983 1.0000
4.9279 -6.5996 -0.3678 0.0000
-0.6778 5.9680 2.3307 1.0000
-2.6309 -2.1996 0.2689 0.0000
-8.7990 3.3590 -1.1381 0.0000
8.8010 -6.1005 0.2449 0.0000
-3.0513 -1.1458 2.7403 1.0000
2.0328 0.0854 -1.7500 2.0000
-6.3848 6.6004 -0.7901 0.0000
-8.7990 3.1684 -0.5725 0.0000
0.0010 -6.1810 -1.0606 0.0000
-4.5665 5.3910 2.8682 0.0000
-8.7990 4.9923 -1.0251 0.0000
-3.9928 -2.1996 -1.6335 0.0000
-4.2727 2.2914 -1.7500 2.0000
8.7546 -6.5996 -1.7375 2.0000
5.5740 -6.5996 -1.7161 0.0000
8.8010 -2.0207 1.1909 0.0000
-1.3968 -2.1996 -0.2977 0.0000
0.2580 -3.8172 3.6471 1.0000
8.8010 -5.0210 -1.6207 0.0000
-8.8001 3.4056 1.7541 0.0000
-1.5810 5.5569 2.7136 1.0000
3.1980 -0.0018 3.2515 1.0000
1.7430 -6.5996 -1.5280 0.0000
2.7000 2.2004 -0.0299 0.0000
0.0010 5.8384 1.3426 0.0000
1.9226 -3.2543 4.0309 1.0000
-8.7990 0.4327 0.0516 0.0000
-0.3958 6.6004 -0.7404 0.0000
-5.3652 -2.1996 -0.0781 0.0000
-4.0515 -2.1996 -0.4855 0.0000
-7.3930 4.9036 -1.7500 2.0000
0.0007 -3.9403 2.5956 1.0000
0.0005 -2.3989 3.4037 1.0000
0.0010 -4.0344 -0.2424 0.0000
-4.3529 6.6004 -0.5420 0.0000
-5.6660 6.6004 0.8120 0.0000
8.2557 1.5405 2.1999 1.0000
-4.4012 -2.1996 0.5049 0.0000
0.1502 -6.5996 1.3099 0.0000
0.7071 -6.5996 0.9742 0.0000
-8.7990 6.2286 1.6916 0.0000
3.6451 0.4349 -1.7500 2.0000
2.1255 -0.7008 3.7281 1.0000
1.5367 1.0677 2.5223 1.0000
-6.4371 0.0951 3.8964 1.0000
8.8010 1.0485 0.1288 0.0000
0.0010 3.0819 0.6306 0.0000
-3.9940 3.5204 4.6109 1.0000
8.8010 -1.9399 2.3335 0.0000
0.0010 -4.0278 0.3759 0.0000
7.6854 2.2004 1.6148 0.0000
-4.3002 -2.1996 -1.4089 0.0000
0.0010 2.7394 -1.6585 2.0000
-7.1805 3.0222 5.0750 1.0000
-1.5348 -2.1996 0.9532 0.0000
1.5123 -1.6398 -1.7500 2.0000
3.6905 -6.5996 1.6701 0.0000
-2.2279 -1.4901 -1.7500 2.0000
7.4409 2.2004 -1.1337 0.0000
-2.0342 1.8944 5.5727 1.0000
4.4436 -3.8653 3.6143 1.0000
-2.7958 -2.1996 -0.7850 0.0000
-8.0348 -2.1996 0.5278 0.0000
-2.9999 6.2717 -1.7500 0.0000
2.4748 -5.0602 2.7996 1.0000
0.0002 2.9113 3.4617 1.0000
8.8010 -4.0593 0.9760 0.0000
0.0010 5.1113 1.3525 0.0000
-0.3932 4.0530 4.1147 1.0000
3.5468 -6.5996 0.7750 0.0000
-1.8551 -2.1996 -1.2574 0.0000
6.5074 -0.1532 3.3547 1.0000
0.0010 -4.0846 -0.9319 0.0000
-0.9640 5.1918 3.0538 1.0000
6.5926 2.1586 -1.7500 2.0000
8.8010 -5.3999 -0.9828 0.0000
8.8010 -2.2737 -0.3797 0.0000
-8.7990 -1.2688 1.0040 0.0000
-8.7990 1.3116 1.6561 0.0000
8.8010 -1.5965 0.2433 0.0000
8.8010 -2.8520 4.1244 1.0000
-8.6381 3.9876 -1.7500 0.0000
-0.3432 -0.4351 3.4025 1.0000
-8.4495 5.7270 2.5552 1.0000
-6.0907 -2.1996 1.2018 0.0000
6.0443 -2.8983 -1.7500 2.0000
8.8010 -0.2504 1.7261 0.0000
-2.8194 -2.1996 -0.1708 0.0000
-2.8394 -2.1996 -1.3117 0.0000
-6.8713 -2.1996 -0.5675 0.0000
-0.8941 0.8794 4.6270 1.0000
-1.8236 -0.7959 3.0663 1.0000
-3.2870 -1.4971 2.4130 1.0000
0.7940 -3.5373 3.8379 1.0000
1.7535 -0.7716 -1.7500 2.0000
8.8010 -3.0312 1.8246 0.0000
8.8010 -4.6276 -1.4637 0.0000
8.8010 -4.1108 1.8996 1.0000
0.0010 -2.4615 1.3352 0.0000
-5.4406 0.1450 -1.7500 2.0000
8.8010 1.5809 -0.0740 0.0000
5.5763 2.2004 -1.6150 0.0000
-3.5164 -2.1996 0.7732 0.0000
5.5729 -6.5996 -1.3022 0.0000
-4.6854 2.9680 5.1256 1.0000
-8.7990 -1.6629 -1.3489 0.0000
-8.8001 4.7516 2.3642 1.0000
8.5262 -6.5996 -0.9069 0.0000
-5.6284 -1.3106 -1.7500 2.0000
-4.9093 6.6004 0.4691 0.0000
-4.4287 6.6004 -1.2429 0.0000
-8.7990 -0.7682 -1.7300 0.0000
-1.0524 6.6004 -1.0486 0.0000
-8.7990 6.3891 -1.3713 0.0000
4.9049 2.2004 -1.3734 0.0000
6.9185 -4.4991 3.1822 1.0000
5.9479 2.2004 -1.4667 0.0000
0.8106 -6.0499 2.1248 1.0000
-5.2712 -0.2519 3.5731 1.0000
-0.2546 6.6004 -1.7401 2.0000
-8.5589 -2.1996 -0.9244 0.0000
8.8010 -0.5854 0.5336 0.0000
-8.8001 1.5884 5.1427 1.0000
-7.6938 6.6004 -1.6572 0.0000
6.7769 -3.2284 4.0485 1.0000
7.1562 -6.5996 0.5892 0.0000
-0.7650 6.6004 -1.7028 0.0000
8.6953 2.2004 0.4816 0.0000
-3.8041 -2.1996 -1.3581 0.0000
-6.3409 6.1856 -1.7500 2.0000
-8.7990 5.1025 -0.3002 0.0000
-8.8001 -0.4060 1.7729 0.0000
-3.7049 -2.1996 -0.5998 0.0000
-7.7802 6.6004 -0.6418 0.0000
-2.9895 6.6004 0.7277 0.0000
0.0002 -2.9361 1.9835 1.0000
-8.8001 3.7191 3.5372 1.0000
0.0000 4.5970 3.4398 1.0000
-0.1996 2.4386 5.6188 1.0000
7.8967 2.2004 -0.9258 0.0000
5.4945 -1.0261 3.9499 1.0000
-7.7945 0.3931 4.1739 1.0000
-7.4348 4.1756 -1.7500 0.0000
7.7387 0.5768 2.8570 1.0000
0.0002 0.9358 3.6728 1.0000
-3.3832 3.9467 4.2138 1.0000
3.1017 2.2004 1.1804 0.0000
-2.5774 -2.1996 -1.5969 2.0000
-8.1460 6.6004 1.2456 0.0000
0.0003 -1.3412 3.5189 1.0000
-5.4117 4.6938 -1.7500 2.0000
-7.7353 -1.5981 2.3189 1.0000
-8.0526 0.8215 4.5731 1.0000
2.1465 2.2004 -0.8385 0.0000
0.0010 3.5700 -0.4954 0.0000
-5.6252 1.2542 -1.7500 2.0000
-1.9345 -0.1307 3.6860 1.0000
0.0010 -4.6635 -0.7630 0.0000
-4.1768 0.5220 4.2941 1.0000
1.1682 -6.5907 -1.7500 2.0000
7.0045 -6.5996 0.2435 0.0000
-1.5342 -2.1590 1.7964 1.0000
-0.0351 3.7701 4.3783 1.0000
-0.9799 3.4347 4.6907 1.0000
0.0002 1.6905 3.8271 1.0000
-3.3364 6.6004 -1.1677 0.0000
0.0041 -2.6752 4.4257 1.0000
2.8018 1.1670 2.4546 1.0000
0.9325 2.2004 -1.7085 2.0000
2.2477 0.7096 -1.7500 2.0000
8.8010 -1.1862 1.6924 0.0000
-4.5311 -2.1996 -0.2426 0.0000
-1.2778 1.1527 -1.7500 2.0000
8.1541 -6.5996 1.3965 0.0000
5.1234 -6.5996 0.4676 0.0000
4.1146 -1.1900 -1.7500 2.0000
4.7309 -0.1090 3.3246 1.0000
0.1674 -6.5996 0.9631 0.0000
7.5927 -3.7046 3.7238 1.0000
-1.0927 -2.1996 0.8560 0.0000
0.0001 0.5650 3.7573 1.0000
0.0001 -1.8573 2.5772 1.0000
5.5675 -2.8641 4.2969 1.0000
-2.1252 2.9757 5.1184 1.0000
8.8010 0.0855 1.1997 0.0000
6.9227 1.0988 -1.7500 2.0000
8.8010 -3.6835 2.8284 1.0000
3.9263 -6.1056 -1.7500 2.0000
8.8010 -4.0059 0.3069 0.0000
-7.7695 6.6004 1.6147 0.0000
-8.7990 5.6880 1.7072 0.0000
2.8615 -6.5996 -1.3357 0.0000
8.8010 0.1233 1.6450 0.0000
8.2369 -6.5996 0.3884 0.0000
-5.7428 1.0846 4.8182 1.0000
-1.8023 -2.1996 1.1687 0.0000
0.0010 2.6657 -1.1575 0.0000
8.8010 -2.4176 1.4983 0.0000
-8.7990 5.3330 0.3448 0.0000
-4.7088 -1.7564 2.1715 1.0000
0.0003 5.1667 1.7673 0.0000
3.5640 2.2004 0.0465 0.0000
-4.7742 1.5771 5.2770 1.0000
-3.4957 -2.1533 -1.7500 2.0000
-8.8001 1.6056 3.8358 1.0000
-8.7990 2.3428 -0.7631 0.0000
-3.3051 6.6004 -0.6361 0.0000
0.0006 3.8739 1.7736 1.0000
-6.8159 6.4427 -1.7500 2.0000
-0.5181 -2.1996 0.9402 0.0000
6.0679 2.2004 0.5166 0.0000
6.1727 -6.5996 1.2025 0.0000
4.5569 2.2004 -1.3474 0.0000
-5.5283 4.1529 4.0217 1.0000
8.8010 -1.3246 -1.3884 0.0000
-5.7105 -1.8337 -1.7500 2.0000
-0.4280 -0.0078 3.8005 1.0000
5.8201 -6.5996 0.9201 0.0000
8.8010 -2.0302 -0.6463 0.0000
-5.8101 2.0711 5.7373 1.0000
-5.4454 6.6004 1.7390 0.0000
8.5089 -6.5488 -1.7500 2.0000
3.2645 0.6153 2.8307 1.0000
3.3131 -1.4217 4.2196 1.0000
-2.9676 -2.1996 -1.7087 2.0000
-7.9131 5.5957 2.6775 1.0000
-4.0519 1.4939 5.1995 1.0000
8.8010 -0.1398 2.5122 0.0000
-8.7990 4.7414 1.4596 0.0000
8.8010 1.6939 1.3082 0.0000
-6.4959 4.0596 4.1085 1.0000
-5.7632 3.1177 4.9860 1.0000
0.0001 1.3742 4.1102 1.0000
8.8010 -4.8066 1.2623 0.0000
0.0010 4.7748 -1.2928 0.0000
-2.5079 3.1528 4.9534 1.0000
-0.6886 4.8852 3.3394 1.0000
8.8010 0.2573 -0.6080 0.0000
-8.7990 0.6566 0.9820 0.0000
8.8010 -3.1726 0.9681 0.0000
-5.0300 0.7704 4.5255 1.0000
-7.6858 -2.1996 1.6335 0.0000
-8.8001 3.3215 3.1023 1.0000
0.0001 4.8395 2.9328 1.0000
1.8398 0.8002 2.7047 1.0000
7.9589 -2.5830 4.4886 1.0000
-1.7287 -1.3532 -1.7500 2.0000
-7.4911 -1.1328 2.7524 1.0000
0.0010 4.2640 -1.3321 0.0000
8.6513 -3.0065 -1.7500 2.0000
-8.7990 3.5154 0.9118 0.0000
-2.5314 2.8572 5.2288 1.0000
5.0979 -5.5809 -1.7500 2.0000
5.1349 1.1086 2.4944 1.0000
-0.3967 0.9125 4.6579 1.0000
-3.1944 1.5782 5.2781 1.0000
-8.7990 5.4279 -1.3492 0.0000
-0.9576 -0.6351 3.2161 1.0000
-8.7990 0.9115 0.1011 0.0000
4.4001 1.5818 2.1718 1.0000
-2.2786 6.6004 -0.2025 0.0000
0.6138 2.2004 -1.4007 0.0000
-2.5956 2.0904 -1.7500 2.0000
3.1390 2.1354 -1.7500 2.0000
-0.4207 1.7387 -1.7500 2.0000
4.0065 2.2004 1.3380 0.0000
0.0000 1.3146 4.5952 1.0000
-8.8001 2.7031 4.8256 1.0000
0.0010 -5.8473 -0.0668 0.0000
-5.0684 -1.5184 2.3932 1.0000
-3.9737 6.6004 -0.4296 0.0000
-4.0399 -1.0865 2.7955 1.0000
-8.8001 -0.9507 1.7778 0.0000
0.0010 -4.2262 1.4033 0.0000
-0.1436 -1.6138 2.3043 1.0000
0.0010 4.1827 0.1730 0.0000
3.7181 -6.5996 0.0571 0.0000
-2.2232 6.6004 -1.5322 0.0000
0.0010 4.5146 0.1182 0.0000
5.0915 -1.0688 3.9790 1.0000
0.0007 -2.0519 4.1991 1.0000
0.0010 -4.1932 -0.5544 0.0000
-2.9511 -1.0290 -1.7500 2.0000
-8.7443 -2.1996 0.4214 0.0000
8.8010 -1.0064 2.8128 1.0000
3.7849 -4.3010 -1.7500 2.0000
-3.6683 6.6004 0.9956 0.0000
-8.7990 0.1338 0.5599 0.0000
8.8010 1.3982 -0.9190 0.0000
0.3550 0.4131 2.9686 1.0000
4.0221 -6.5996 -0.6144 0.0000
2.6852 -3.2580 -1.7500 2.0000
-8.7990 0.9579 1.5534 0.0000
8.8010 -3.6048 1.9196 1.0000
8.8010 0.6305 -1.5363 0.0000
8.8010 -2.3324 -0.7675 0.0000
2.8036 -6.5996 -0.9872 0.0000
3.1301 -2.0558 4.6520 1.0000
6.2080 -5.0074 2.8356 1.0000
8.8010 0.5670 -1.0996 0.0000
4.9624 -2.0842 4.6713 1.0000
4.5585 -2.9686 4.2257 1.0000
4.6923 -6.5996 -1.4399 0.0000
0.0010 -3.8533 -1.1812 0.0000
-4.2094 2.6999 5.3754 1.0000
-2.5846 6.1802 2.1330 1.0000
-4.9714 -2.0366 -1.7500 2.0000
-8.7086 3.2888 -1.7500 0.0000
-5.5901 2.6063 5.4625 1.0000
6.6238 -6.1051 2.0872 1.0000
-8.8001 2.3089 5.4174 1.0000
-5.7524 -2.1996 -0.3768 0.0000
3.4561 -6.5996 1.2061 0.0000
8.8010 -4.7685 -0.2518 0.0000
-0.3420 -2.1349 -1.7500 2.0000
0.0010 -2.7481 -1.6530 2.0000
0.0009 -3.0860 4.0434 1.0000
3.4217 -5.4277 -1.7500 2.0000
8.8010 -1.4494 0.6270 0.0000
5.2082 2.2004 -1.6870 2.0000
7.2763 -4.4022 -1.7500 2.0000
-3.0890 3.1778 -1.7500 2.0000
6.1407 -6.5996 -0.1524 0.0000
2.1490 2.2004 0.6308 0.0000
-8.7990 -1.0651 -1.1164 0.0000
8.4767 -3.9454 3.5597 1.0000
-6.7432 6.3494 1.9753 1.0000
1.9749 -3.7391 3.7003 1.0000
8.6018 -4.8714 2.9283 1.0000
1.2513 -0.7409 3.7554 1.0000
2.6888 -5.5513 -1.7500 2.0000
8.8010 -4.4530 2.3358 1.0000
-3.7852 -2.1996 -0.9959 0.0000
-3.8066 -0.8974 -1.7500 2.0000
-2.1105 -1.1947 2.6947 1.0000
-1.0449 -2.1706 1.7856 1.0000
-8.7990 4.3546 1.2409 0.0000
-8.1085 6.6004 1.5823 0.0000
0.0002 5.2969 2.2915 1.0000
1.3906 -3.8926 -1.7500 2.0000
8.8010 -3.0156 -1.6197 0.0000
0.0010 -4.5325 -0.3935 0.0000
-0.5331 6.6004 0.1789 0.0000
1.2711 -2.7873 4.3493 1.0000
-1.5038 3.5819 -1.7500 2.0000
-0.6493 2.4048 -1.7500 2.0000
-8.8001 2.6905 2.2648 1.0000
4.3902 -4.9823 -1.7500 2.0000
8.8010 -6.5589 1.7174 0.0000
8.8010 -0.8153 3.7571 1.0000
-2.1167 0.4111 4.1908 1.0000
0.4618 2.2004 0.2977 0.0000
-6.1042 1.5567 5.2580 1.0000
7.4199 -0.8364 3.8205 1.0000
1.9516 -3.5359 -1.7500 2.0000
-0.0115 6.6004 0.8609 0.0000
-4.8882 6.6004 -1.6770 0.0000
3.0862 -0.1414 -1.7500 2.0000
8.8010 -0.5294 0.1988 0.0000
5.3457 -5.6988 2.3642 1.0000
8.8010 -0.0440 -1.0998 0.0000
-5.2775 -2.1996 -0.9825 0.0000
-3.9776 -2.1996 0.0470 0.0000
4.7463 0.9965 2.5709 1.0000
-1.1886 6.5388 1.7989 1.0000
1.2944 -6.5996 0.9259 0.0000
-8.1719 2.8230 5.2607 1.0000
-1.0183 3.4062 -1.7500 2.0000
3.5745 -5.8975 2.2287 1.0000
-8.7990 3.6589 0.5453 0.0000
-0.1314 2.3513 -1.7500 2.0000
8.8010 -2.2631 0.2322 0.0000
7.4940 -6.5558 1.7799 0.0000
0.6738 -6.5996 -1.5446 0.0000
8.8010 -3.8995 -1.3399 0.0000
-8.8001 5.6432 2.2579 1.0000
-8.0971 1.2168 4.9414 1.0000
0.0010 -6.4796 -0.2069 0.0000
4.7967 -4.6448 -1.7500 2.0000
8.8010 2.1901 -1.3794 0.0000
5.4363 -6.5996 0.8053 0.0000
-6.7288 4.7224 3.4911 1.0000
-0.9633 -0.3368 3.4940 1.0000
8.8010 -3.5909 1.1309 0.0000
-4.0207 1.8779 -1.7500 2.0000
-8.7990 2.6104 1.3032 0.0000
8.8010 -5.9855 0.5503 0.0000
-2.3714 -2.1996 -0.2459 0.0000
-3.6481 4.9023 3.3235 1.0000
-1.9429 4.3798 -1.7500 2.0000
0.0003 1.8879 3.2403 1.0000
-6.4626 1.4483 5.1571 1.0000
0.0663 -5.4134 -1.7500 2.0000
-8.7990 2.9937 -1.0705 0.0000
3.9446 -6.5996 1.2515 0.0000
-1.8258 -1.8799 -1.7500 2.0000
-0.1045 -2.1996 -0.4402 0.0000
-8.7990 3.2928 0.0929 0.0000
5.1884 2.2004 1.2978 0.0000
-5.2720 4.8812 3.3431 1.0000
3.1499 -0.6699 3.7070 1.0000
1.0294 -0.4031 3.5251 1.0000
-8.4532 -2.1996 -0.2943 0.0000
-8.7990 4.4185 -1.3771 0.0000
0.0003 2.8542 3.0518 1.0000
-0.0000 2.4743 5.2076 1.0000
4.9161 -1.7266 4.4275 1.0000
-1.9005 5.7926 2.4940 1.0000
7.1169 2.2004 -0.5351 0.0000
-8.6400 6.6004 1.1132 0.0000
-3.6653 6.6004 -1.1432 0.0000
-1.1589 6.6004 -1.7223 0.0000
8.3467 -4.6136 3.1041 1.0000
8.8010 -5.1935 0.5057 0.0000
-0.8550 -2.1996 1.5608 0.0000
8.8010 -1.9369 0.0798 0.0000
5.6237 -0.1052 3.3220 1.0000
-6.1390 -1.1483 -1.7500 2.0000
1.3924 -1.4333 4.2275 1.0000
0.0005 2.6492 2.1845 1.0000
7.2321 -6.5996 -0.6402 0.0000
-8.7990 0.5890 -0.3701 0.0000
-2.9191 -0.8637 3.0031 1.0000
8.8010 -1.7748 3.8678 1.0000
4.8925 -1.6777 -1.7500 2.0000
-3.8035 1.1178 4.8491 1.0000
-5.5352 2.4210 -1.7500 2.0000
-2.0018 3.5360 -1.7500 2.0000
4.4359 -5.1740 2.7220 1.0000
-7.8757 -0.5881 3.2599 1.0000
-0.5611 4.3221 3.8641 1.0000
-2.2867 3.7657 4.3824 1.0000
-2.1906 4.3930 3.7980 1.0000
7.0486 0.5735 2.8592 1.0000
7.4200 -0.0622 3.2927 1.0000
3.7298 -3.8672 3.6130 1.0000
-8.8001 3.1299 4.4102 1.0000
-0.8752 6.6004 1.4294 0.0000
-4.9511 1.1518 4.8808 1.0000
-4.2244 0.8949 4.6415 1.0000
7.7749 0.8994 -1.7500 2.0000
-1.0174 -2.1996 -0.4957 0.0000
-7.4526 1.6681 5.3618 1.0000
4.8167 2.2004 0.1627 0.0000
4.3121 -3.2934 4.0042 1.0000
-5.3343 -1.2941 2.6021 1.0000
-5.9196 -2.1996 1.4851 0.0000
3.7927 -0.6279 3.6784 1.0000
2.5468 -6.5996 -1.4194 0.0000
-2.4678 -2.1996 1.6905 1.0000
-3.3719 2.1200 5.7828 1.0000
-8.8001 5.8850 1.7619 0.0000
0.0010 5.7859 -0.7713 0.0000
0.8012 -6.5996 -1.1382 0.0000
0.0002 -2.1981 2.4257 1.0000
-0.1233 -2.1996 -1.7246 2.0000
8.8010 -5.8820 -1.4208 0.0000
7.6360 -6.5996 -0.0160 0.0000
-7.3894 5.6218 2.6531 1.0000
0.0010 -5.9203 -1.6262 0.0000
-8.8001 2.7055 3.3455 1.0000
5.8126 2.2004 -0.4573 0.0000
5.8661 -2.0641 4.6576 1.0000
-4.3728 1.9400 5.6152 1.0000
-8.7990 2.2722 0.9565 0.0000
3.2333 2.2004 -1.7486 2.0000
8.8010 -2.8764 1.1493 0.0000
-8.4186 4.1299 4.0431 1.0000
-8.7442 -1.7395 2.1872 1.0000
1.4612 -6.1826 2.0343 1.0000
6.5970 2.2004 -0.5302 0.0000
4.7610 -3.6306 -1.7500 2.0000
8.8010 -3.1239 0.1214 0.0000
-3.5217 2.8011 -1.7500 2.0000
-6.8210 3.8511 -1.7500 2.0000
0.9042 2.2004 1.4741 0.0000
-4.2543 4.2531 3.9283 1.0000
2.9903 2.2004 -1.1736 0.0000
1.3127 -6.5996 0.2406 0.0000
-8.7990 4.0486 -1.2790 0.0000
-8.5035 -2.1002 -1.7500 0.0000
-8.7990 -0.2489 -0.6286 0.0000
3.4099 2.2004 -0.8407 0.0000
-3.2358 -0.0287 -1.7500 2.0000
8.8010 -5.7585 0.9996 0.0000
-2.7378 -2.1160 -1.7500 2.0000
3.7460 1.0793 -1.7500 2.0000
4.5034 -6.5996 -0.5241 0.0000
-8.7990 -1.2812 1.6151 0.0000
-8.7990 5.5415 -0.3798 0.0000
0.0006 1.8211 2.2538 1.0000
-8.8001 3.8892 1.7799 0.0000
0.0010 -3.1313 -0.8690 0.0000
-8.0289 -2.1996 0.0081 0.0000
7.1311 -6.5996 -1.0879 0.0000
7.9404 -6.5996 -0.6013 0.0000
2.5630 0.8972 2.6386 1.0000
-8.7990 1.7566 -0.3824 0.0000
0.0010 -2.9510 -0.4086 0.0000
0.7739 -6.5996 0.0035 0.0000
7.7459 -5.7586 2.3234 1.0000
-0.8022 0.4563 4.2329 1.0000
2.5075 -0.8960 3.8612 1.0000
6.3596 -1.8302 4.4981 1.0000
3.5583 -6.5979 -1.7500 2.0000
-8.7990 6.5643 -0.7118 0.0000
0.0010 3.8255 0.4230 0.0000
-5.1849 6.3874 -1.7500 2.0000
-3.4812 6.6004 -1.4792 0.0000
1.7427 -5.9568 2.1882 1.0000
1.4270 -2.1851 -1.7500 2.0000
-6.7274 6.6004 -1.7077 2.0000
-3.9698 -2.1996 0.7626 0.0000
-7.9054 -2.1996 -0.3418 0.0000
0.0010 -5.5724 -1.5438 0.0000
0.1878 2.2004 1.7355 1.0000
-8.8001 2.7665 2.6786 1.0000
0.9846 0.2244 3.0973 1.0000
-8.2419 3.7390 4.4072 1.0000
-8.7990 3.4203 -0.8084 0.0000
-0.6586 6.6004 1.0705 0.0000
0.0010 4.1472 -1.6318 0.0000
-3.1920 -2.1996 -1.3506 0.0000
0.3851 -1.1368 -1.7500 2.0000
8.8010 1.6907 0.9225 0.0000
-8.7990 2.6129 -1.7084 0.0000
0.6508 0.9880 2.5767 1.0000
2.7007 2.1799 1.7640 1.0000
-4.3239 2.7589 -1.7500 2.0000
6.8123 -2.8756 4.2891 1.0000
-8.7990 4.6382 -0.8620 0.0000
-8.6932 0.1137 3.9137 1.0000
-1.2739 -1.7206 2.2048 1.0000
-8.8001 0.5827 2.2635 0.0000
0.0007 -5.5007 1.8082 0.0000
8.4153 -6.5996 1.0359 0.0000
-8.8001 0.5510 3.0037 1.0000
-2.0761 -2.1996 -0.9773 0.0000
-7.9343 1.6955 5.3874 1.0000
-3.1799 6.6004 1.6714 0.0000
6.9456 -1.1275 -1.7500 2.0000
-6.8042 6.6004 0.0050 0.0000
-2.4911 4.9912 3.2406 1.0000
0.0010 4.7333 1.7495 0.0000
-7.0031 0.3374 4.1221 1.0000
3.7109 2.2004 0.5339 0.0000
8.2640 0.8611 2.6632 1.0000
-6.7375 1.9684 5.6416 1.0000
2.7072 2.2004 1.6618 0.0000
-4.3113 -1.3754 2.5264 1.0000
2.7698 -6.5996 1.7208 0.0000
-2.6278 6.6004 -0.1305 0.0000
-6.3433 -2.1996 -0.0016 0.0000
-8.7990 -1.0631 0.0455 0.0000
0.4646 2.2004 -0.7340 0.0000
8.8010 0.9503 2.5743 1.0000
2.5378 -4.1080 3.4488 1.0000
-8.7990 6.1739 -0.0835 0.0000
-0.8724 6.6004 -0.4557 0.0000
0.0009 -3.8996 3.3027 1.0000
-0.0275 -2.1996 0.6007 0.0000
-8.7990 3.0631 -1.6622 0.0000
8.8010 -3.2498 -1.3701 0.0000
-4.5751 -2.1996 -1.1676 0.0000
-3.2202 4.7126 3.5002 1.0000
-2.8086 6.6004 -1.5955 0.0000
7.6762 -4.4030 3.2476 1.0000
-1.0593 0.2484 -1.7500 2.0000
5.1602 1.7998 2.0231 1.0000
5.9108 -6.5996 1.4326 0.0000
7.4878 -6.1650 2.0463 1.0000
4.1598 -6.5996 0.3755 0.0000
7.8052 -6.5996 1.3560 0.0000
-2.7604 1.3145 5.0324 1.0000
-2.3192 0.0086 3.8158 1.0000
0.0010 -4.7538 -1.5631 0.0000
-4.9516 5.2670 -1.7500 0.0000
0.0010 6.1478 0.1029 0.0000
1.0698 2.2004 -0.3595 0.0000
-8.8001 2.4180 3.6090 1.0000
0.0009 -3.5571 3.7385 1.0000
8.8010 -6.5703 0.3386 0.0000
7.9017 -6.5996 0.5864 0.0000
-7.2974 -2.1996 0.8119 0.0000
-4.8784 -2.1996 1.5129 0.0000
2.2188 1.9786 1.9013 1.0000
-4.5408 3.3758 4.7456 1.0000
-8.7990 2.5580 0.3899 0.0000
4.8678 1.3737 2.3137 1.0000
1.0639 -6.5996 0.4998 0.0000
-2.4515 -1.4676 2.4405 1.0000
-2.1965 3.9527 -1.7500 2.0000
8.8010 0.4253 1.1570 0.0000
2.9740 -4.7361 3.0205 1.0000
-6.6963 -0.6509 -1.7500 0.0000
0.0010 6.2580 -0.6298 0.0000
-1.3961 2.5563 5.5091 1.0000
-5.3985 0.8324 -1.7500 2.0000
3.3909 -6.5996 -0.5457 0.0000
8.1169 2.2004 0.1653 0.0000
-1.8397 -2.1996 1.6389 0.0000
-5.5713 6.6004 -1.1596 0.0000
-5.7797 0.6698 4.4318 1.0000
2.4466 -6.5996 1.0720 0.0000
3.6527 1.2441 2.4021 1.0000
-3.6592 4.3325 -1.7500 2.0000
-5.4281 -2.1996 0.3601 0.0000
-7.5897 -2.1996 -0.3879 0.0000
7.2262 -1.8520 4.5130 1.0000
4.8085 -4.5450 3.1509 1.0000
6.6237 2.2004 -1.6447 0.0000
4.0817 1.1399 2.4731 1.0000
8.8010 -2.5501 2.8223 1.0000
1.7459 -0.5312 3.6125 1.0000
7.4024 -5.1309 -1.7500 2.0000
-1.8652 6.6004 1.6009 0.0000
-4.3117 -0.1990 -1.7500 2.0000
-8.7990 0.8136 0.6705 0.0000
-2.6162 6.6004 0.8352 0.0000
-8.7990 2.9910 1.2112 0.0000
1.2731 2.2004 1.0361 0.0000
-8.2783 5.8499 -1.7500 0.0000
8.8010 -2.8187 0.3877 0.0000
-3.3524 1.1617 4.8901 1.0000
1.8076 2.0873 -1.7500 2.0000
2.6861 -6.5525 -1.7500 2.0000
3.4458 -6.5996 -1.7158 2.0000
1.5870 2.2004 -1.6615 2.0000
0.4624 -6.5996 0.1475 0.0000
-8.1155 3.4017 4.7215 1.0000
-4.0633 -2.1693 -1.7500 2.0000
-8.8001 4.2819 1.8857 1.0000
7.4968 -2.4156 4.6028 1.0000
-5.9003 3.8547 4.2994 1.0000
-8.7990 -0.3353 0.6904 0.0000
-3.1048 6.6004 -1.3940 0.0000
-5.2163 1.4668 5.1743 1.0000
-3.2980 6.6004 0.9571 0.0000
-8.7990 3.6937 -1.1069 0.0000
7.9873 -1.9017 4.5469 1.0000
-6.0461 2.4847 -1.7500 2.0000
-4.6594 6.6004 1.5865 0.0000
3.6300 2.1915 -1.7500 2.0000
8.3259 -5.1213 2.7580 1.0000
-3.1034 3.5528 4.5807 1.0000
0.0010 6.3368 -1.7255 0.0000
-8.8001 5.4608 1.8932 1.0000
-0.2264 6.6004 -1.0521 0.0000
-0.7911 6.6004 -0.8025 0.0000
-8.7990 -1.0232 -1.4394 0.0000
2.8312 2.2004 0.9303 0.0000
-5.2456 6.6004 0.3364 0.0000
-3.0815 6.6004 -1.7421 0.0000
1.7911 -6.5996 -1.0153 0.0000
5.4004 -2.2100 -1.7500 2.0000
-2.6497 1.6016 5.2999 1.0000
-2.1676 -0.8327 -1.7500 2.0000
-0.5063 6.6004 1.3470 0.0000
-7.3736 6.6004 -0.6076 0.0000
-8.8001 4.1130 3.8352 1.0000
-6.1152 6.6004 1.2481 0.0000
-2.3995 -2.1996 1.3310 0.0000
7.8151 2.1766 1.7663 0.0000
3.0627 -4.1271 -1.7500 2.0000
-7.0010 -1.2754 2.6196 1.0000
0.0002 3.6251 3.2046 1.0000
4.2279 0.9688 -1.7500 2.0000
8.8010 -2.8710 2.4074 1.0000
5.3057 2.2004 -1.3204 0.0000
-1.5583 -0.9116 -1.7500 2.0000
-2.5958 4.2601 -1.7500 2.0000
0.0001 5.7900 1.9192 1.0000
-7.0259 -2.1996 1.6475 0.0000
8.8010 -5.4150 1.8589 0.0000
8.8010 -0.0772 -0.0283 0.0000
-3.7361 -2.1996 1.0050 0.0000
-4.5466 6.6004 0.4622 0.0000
-6.7759 2.9602 5.1328 1.0000
2.5347 -3.3925 3.9367 1.0000
-7.2296 6.6004 -0.1526 0.0000
5.3157 -1.2840 -1.7500 2.0000
2.2134 -5.9938 -1.7500 2.0000
-6.5137 3.2318 4.8798 1.0000
-4.8713 4.4071 3.7848 1.0000
0.0010 5.5932 1.6733 0.0000
-0.3287 5.0770 3.1608 1.0000
0.0010 5.1036 0.0327 0.0000
0.4508 -4.3507 -1.7500 2.0000
-2.3570 1.2793 4.9996 1.0000
-8.6736 1.0247 -1.7500 0.0000
8.8010 -1.2821 0.0337 0.0000
8.7583 -5.1972 -1.7500 2.0000
8.8010 -5.8386 1.9151 1.0000
-2.6891 -0.2937 3.5341 1.0000
-3.2853 -0.8951 2.9739 1.0000
0.0010 -4.3017 0.2043 0.0000
-8.7990 0.7270 -1.4965 0.0000
8.8010 -0.3839 -1.0565 0.0000
6.5874 2.2004 1.0505 0.0000
-5.8345 5.7791 2.5067 1.0000
-8.7990 2.4813 -1.3559 0.0000
0.0005 -4.2749 2.0136 1.0000
-8.7990 0.9321 -1.0782 0.0000
1.7414 -6.5719 1.7689 0.0000
-3.6449 6.5448 -1.7500 0.0000
-6.9229 -1.8896 2.0474 1.0000
8.8010 -5.6102 0.6894 0.0000
-8.0410 6.3363 -1.7500 2.0000
-3.3711 -2.1996 1.1826 0.0000
-1.7753 6.6004 -1.7135 0.0000
-8.8001 5.0035 1.7879 0.0000
8.8010 1.3256 -1.6141 0.0000
0.0010 2.3693 0.4961 0.0000
-8.8001 1.8742 4.4307 1.0000
-6.4177 3.5063 -1.7500 2.0000
-3.9128 5.5280 2.7405 0.0000
0.0001 -2.5628 1.7569 1.0000
8.8010 -4.7586 0.9213 0.0000
8.6665 2.2004 -0.7698 0.0000
4.1092 -4.0198 3.5090 1.0000
-6.9514 -2.1996 0.2717 0.0000
2.3896 -6.4866 1.8270 0.0000
8.8010 -5.3146 1.7240 0.0000
-8.7990 -1.9097 1.0112 0.0000
7.4498 0.8089 2.6987 1.0000
7.6116 2.2004 0.4995 0.0000
5.2655 -0.5684 3.6378 1.0000
5.1702 2.2004 -0.1485 0.0000
8.5910 -1.1261 4.0181 1.0000
1.7435 2.0789 1.8329 1.0000
0.0010 -3.4872 -1.1853 0.0000
-2.0361 -2.1996 0.0028 0.0000
0.3551 2.2004 1.4413 0.0000
-1.7864 5.4261 -1.7500 2.0000
7.7463 2.2004 -0.4123 0.0000
5.7983 -0.0437 -1.7500 2.0000
-6.5592 -2.1996 -0.8112 0.0000
-7.8926 -1.1419 -1.7500 0.0000
0.0004 -3.5051 2.2847 1.0000
6.2610 2.2004 -1.3551 0.0000
-5.8541 -1.5350 2.3777 1.0000
4.8780 2.2004 -0.5394 0.0000
5.4660 -6.5996 -0.6013 0.0000
7.1808 2.2004 -1.3404 0.0000
-6.2642 6.6004 1.6697 0.0000
-4.9049 6.6004 0.0728 0.0000
2.0542 -4.1249 3.4373 1.0000
-7.3808 -2.1996 1.5771 0.0000
8.8010 1.3940 1.8665 1.0000
0.0010 5.5826 1.1076 0.0000
5.1134 -0.7323 -1.7500 2.0000
8.8010 1.8839 1.7085 0.0000
7.7246 -6.5996 -1.7386 2.0000
-7.4074 -0.7857 3.0757 1.0000
8.8010 -1.5103 2.0692 0.0000
2.7838 -6.5996 1.0582 0.0000
8.8010 -2.6622 -1.7234 0.0000
2.5409 0.5709 2.8611 1.0000
-5.0551 1.8056 5.4899 1.0000
-6.7779 5.5536 -1.7500 2.0000
2.4118 2.2004 -1.2377 0.0000
-7.5234 6.0780 -1.7500 2.0000
-8.7990 5.8741 0.1722 0.0000
5.3890 -3.6896 3.7341 1.0000
3.1413 -6.5996 -0.2185 0.0000
1.7841 -6.5996 -0.1686 0.0000
-8.7990 0.9273 -0.5750 0.0000
3.9952 -2.2068 4.7451 1.0000
-6.6726 -2.1159 -1.7500 2.0000
0.0001 2.6211 3.7528 1.0000
0.3327 2.1007 -1.7500 2.0000
6.0193 -3.7842 -1.7500 2.0000
-7.8061 6.6004 -1.1547 0.0000
-8.7990 5.0053 -1.5560 0.0000
0.0003 2.2418 2.9878 1.0000
8.8010 0.2261 2.5957 1.0000
-3.0287 -1.6059 -1.7500 2.0000
2.3393 -6.5996 0.0421 0.0000
1.9683 -1.3269 -1.7500 2.0000
-6.6757 1.1528 4.8818 1.0000
-8.7990 1.3055 -0.4570 0.0000
0.0010 -6.5484 -1.7481 2.0000
6.7312 -1.2141 4.0780 1.0000
-8.7990 -2.1964 -0.1629 0.0000
3.1363 -6.5996 0.5953 0.0000
-8.6030 3.3579 4.7623 1.0000
-0.7557 6.2969 2.0242 1.0000
6.1249 -6.5996 -0.6017 0.0000
-0.0000 3.2420 4.6185 1.0000
0.0007 -3.0329 3.3272 1.0000
0.0010 -5.4307 -0.8526 0.0000
5.8474 2.1523 -1.7500 2.0000
0.0008 -2.6843 3.8052 1.0000
0.0001 -1.3779 2.9117 1.0000
-0.0725 6.5343 1.8030 1.0000
3.5053 2.2004 1.2542 0.0000
-5.1343 -2.1996 1.7080 0.0000
-2.6107 6.6004 -0.4644 0.0000
4.1360 -3.0437 -1.7500 2.0000
8.8010 -6.5035 0.7149 0.0000
0.0006 -3.3069 2.9557 1.0000
4.5080 -5.5050 2.4963 1.0000
3.6580 -6.5996 -0.7162 0.0000
-4.5600 0.5573 -1.7500 2.0000
-8.8001 1.8050 1.8302 0.0000
-1.5232 5.0460 -1.7500 2.0000
7.9298 -6.5996 -0.2257 0.0000
-0.5675 1.2548 4.9768 1.0000
8.4186 -3.1517 4.1008 1.0000
5.9665 -3.8589 3.6187 1.0000
-8.8001 1.8524 2.5775 1.0000
-6.1863 0.7017 4.4615 1.0000
2.5000 -5.9674 2.1810 1.0000
3.4719 -1.7284 -1.7500 2.0000
3.6909 -2.1816 -1.7500 2.0000
0.0010 -3.2652 -0.2749 0.0000
8.5802 2.1949 -1.7500 2.0000
8.8010 0.1597 0.8703 0.0000
-2.4857 6.2238 -1.7500 2.0000
8.8010 -0.7958 1.5360 0.0000
-7.6737 -0.2682 3.5579 1.0000
-6.9133 -2.1996 0.8386 0.0000
-4.1833 -1.2732 -1.7500 2.0000
2.1037 2.2004 -1.3366 0.0000
-5.0462 0.2794 4.0680 1.0000
4.8842 -6.1982 2.0237 1.0000
5.7965 -6.5996 -0.6181 0.0000
-8.6806 -0.9486 -1.7500 0.0000
-5.2558 6.6004 -1.6049 0.0000
8.8010 -4.4978 0.5355 0.0000
-8.6766 2.9027 5.1864 1.0000
7.4443 -6.5996 0.8654 0.0000
6.7272 0.2614 -1.7500 2.0000
-5.9699 4.3880 3.8026 1.0000
0.9531 2.2004 -1.2699 0.0000
2.4440 -2.3240 4.6652 1.0000
-1.5698 6.6004 -0.7923 0.0000
7.8314 -6.5996 -1.1683 0.0000
-2.2809 0.7570 4.5130 1.0000
6.4137 -2.4347 -1.7500 2.0000
4.2704 2.1903 1.7569 1.0000
3.5395 -2.8532 -1.7500 2.0000
-4.4525 -1.0069 2.8697 1.0000
4.2711 2.2004 1.5656 0.0000
-0.3259 6.6004 -1.4165 0.0000
-1.9192 4.9105 3.3158 1.0000
6.0892 2.2004 -0.2703 0.0000
5.8251 -6.5996 0.1707 0.0000
8.8010 -0.0611 2.9441 1.0000
2.5364 -5.6057 2.4276 1.0000
-8.7990 4.0283 -0.3819 0.0000
-2.0165 -2.1996 0.6992 0.0000
6.6829 -1.5864 4.3319 1.0000
0.0010 -4.9864 0.6919 0.0000
-4.5246 4.6523 3.5564 1.0000
-8.7990 4.8589 -0.5560 0.0000
-0.0000 1.3586 4.9908 1.0000
6.4729 1.2346 2.4085 1.0000
-6.3229 4.7366 -1.7500 2.0000
-0.0604 0.6535 -1.7500 2.0000
-1.1140 3.7699 4.3785 1.0000
7.9423 2.2004 1.1690 0.0000
-6.4952 0.2682 -1.7500 0.0000
-6.8908 5.3582 2.8988 1.0000
-8.7990 4.6133 -0.3466 0.0000
7.3407 -2.6508 -1.7500 2.0000
2.0188 2.2004 -1.7050 2.0000
8.5504 -6.5996 -0.3043 0.0000
-8.7990 3.9908 1.0466 0.0000
-2.3022 -2.1996 0.2785 0.0000
3.8348 -5.2101 -1.7500 2.0000
4.0141 0.0030 3.2482 1.0000
0.0010 6.4736 1.5940 0.0000
3.6195 -2.1900 4.7435 1.0000
-8.6916 6.6004 -1.6188 0.0000
-1.7634 -2.1996 -1.6845 2.0000
-8.3111 -1.9069 2.0312 1.0000
-6.0948 5.0166 3.2170 1.0000
8.8010 -4.5616 -1.1404 0.0000
7.3389 -6.5996 -1.7180 2.0000
-5.3014 -2.1996 1.3764 0.0000
8.8010 -2.5345 0.6618 0.0000
8.8010 -3.9457 -0.0391 0.0000
8.8010 0.7191 1.3173 0.0000
-1.7586 2.4184 5.6376 1.0000
-5.4389 5.4735 2.7913 1.0000
-8.7990 1.9646 1.1948 0.0000
8.8010 -0.6376 -0.3318 0.0000
-1.3996 0.5172 4.2896 1.0000
-6.6786 6.6004 -0.4333 0.0000
-0.8302 1.9867 5.6586 1.0000
-3.5559 -0.6920 3.1631 1.0000
-5.0711 2.8366 5.2480 1.0000
-8.7990 -1.8191 -0.3649 0.0000
-7.3856 6.6004 0.1713 0.0000
-8.3979 -1.5816 2.3342 1.0000
0.0793 -5.8863 -1.7500 2.0000
-8.7990 -1.6801 1.2323 0.0000
8.2143 -0.6062 -1.7500 2.0000
-3.5329 6.6004 0.0077 0.0000
-8.7990 2.0860 -0.9803 0.0000
0.9746 -1.8308 4.4985 1.0000
7.2465 -3.4210 3.9172 1.0000
-8.8001 1.9693 2.9477 1.0000
3.9075 -6.5996 -0.2194 0.0000
-8.7990 5.8937 -0.3996 0.0000
-8.5198 -0.5137 3.3292 1.0000
-0.5319 2.5927 5.4752 1.0000
7.0296 -0.5338 -1.7500 2.0000
-0.9195 4.1472 4.0270 1.0000
2.2124 -6.5498 -1.7500 2.0000
-8.7990 0.6870 1.7373 0.0000
0.1368 -6.5996 0.3170 0.0000
-4.9595 -2.1996 -1.3748 0.0000
0.0003 -3.5666 1.8147 1.0000
1.9791 -4.7180 3.0329 1.0000
-7.4615 6.6004 1.2029 0.0000
8.8010 -2.8530 1.6775 0.0000
2.0889 -5.8001 2.2951 1.0000
-8.7233 -2.1996 0.8551 0.0000
-8.4091 0.8672 4.6157 1.0000
-6.5647 0.8852 4.6324 1.0000
-4.3303 6.6004 0.2329 0.0000
-2.6372 -2.1996 0.9219 0.0000
6.0762 2.2004 1.0630 0.0000
-5.2559 0.0473 3.8518 1.0000
4.5688 -6.3970 1.8882 0.0000
-8.8001 0.6767 3.8565 1.0000
6.5402 -2.1986 4.7494 1.0000
3.4334 -3.7762 -1.7500 2.0000
-6.3162 -1.6724 -1.7500 2.0000
6.9882 2.2004 1.7032 0.0000
-6.3743 -0.3259 -1.7500 0.0000
-8.7990 -0.9395 1.2521 0.0000
0.0003 0.9678 3.2407 1.0000
8.8010 -2.0309 1.5174 0.0000
8.8010 -1.8184 0.6929 0.0000
-6.5297 5.1003 3.1390 1.0000
-8.7990 -0.2920 1.4358 0.0000
4.7069 -2.6583 4.4372 1.0000
-4.1157 6.6004 1.4210 0.0000
7.1052 1.6676 2.1133 1.0000
-1.3803 -2.1996 0.6025 0.0000
8.2050 2.2004 1.7170 0.0000
3.1421 2.2004 0.6988 0.0000
7.2103 2.2004 0.5324 0.0000
0.7294 -4.3162 3.3068 1.0000
8.7012 -0.5500 -1.7500 0.0000
-5.7032 1.3724 5.0864 1.0000
8.8010 -0.7035 3.1427 1.0000
8.0873 -0.5843 3.6487 1.0000
-8.8001 2.9257 1.9593 1.0000
7.3667 2.2004 0.1624 0.0000
-7.1647 2.5505 5.5146 1.0000
-1.1912 2.5661 -1.7500 2.0000
-8.4784 6.6004 1.4423 0.0000
4.6823 -6.5996 1.6544 0.0000
-6.2569 4.7257 3.4880 1.0000
-6.3974 6.6004 1.1090 0.0000
1.9718 -2.3970 -1.7500 2.0000
8.8010 -1.9092 -1.5867 0.0000
-3.4882 -2.1996 -0.0014 0.0000
-4.4999 5.7317 2.5508 1.0000
-1.4678 6.6004 0.1672 0.0000
4.0797 -0.9669 3.9096 1.0000
-2.1775 6.6004 -0.5945 0.0000
0.0010 5.4531 0.7319 0.0000
-1.6484 6.6004 1.1865 0.0000
0.0010 3.6282 0.6960 0.0000
-2.3792 -2.1996 -1.1073 0.0000
8.8010 -3.3700 -0.7549 0.0000
-2.1068 -0.4161 3.4201 1.0000
-0.3873 4.7044 3.5079 1.0000
-8.7990 3.8264 0.1459 0.0000
3.1920 -6.5840 1.7606 0.0000
0.0010 6.5715 -0.6241 0.0000
1.3009 -6.5996 -0.3001 0.0000
0.1011 -1.5067 4.2776 1.0000
-8.0531 6.6004 -1.6011 0.0000
7.1601 -6.1079 -1.7500 2.0000
-4.9688 -2.1996 -0.1529 0.0000
4.8205 2.2004 1.2156 0.0000
-7.0355 0.9430 4.6863 1.0000
-2.3705 6.6004 1.4434 0.0000
0.8218 2.2004 0.0810 1.0000
0.0010 -4.6534 1.1036 0.0000
-3.0855 6.5313 1.8058 1.0000
2.3057 2.2004 0.9538 0.0000
0.0001 -0.1279 3.3515 1.0000
2.2417 -1.6714 4.3899 1.0000
-1.5229 0.2272 4.0194 1.0000
5.3649 2.2004 0.2312 0.0000
6.2563 1.7604 -1.7500 2.0000
-6.8720 1.5153 -1.7500 0.0000
6.9447 -5.5548 2.4624 1.0000
-8.8001 2.2371 4.8660 1.0000
0.0000 6.1281 2.1024 1.0000
-2.7017 3.5950 4.5415 1.0000
-4.0216 6.6004 1.7361 0.0000
-2.3170 4.6992 3.5127 1.0000
-8.7990 -0.7304 -0.0597 0.0000
-7.6129 5.9367 2.3598 1.0000
5.6546 -6.5638 -1.7500 2.0000
-0.4686 -0.8019 3.0607 1.0000
-0.4513 0.2667 4.0562 1.0000
-0.5489 6.5533 1.7853 0.0000
-8.5623 6.6004 -0.4829 0.0000
-7.2537 -0.0526 3.7587 1.0000
-8.7990 -1.7972 -0.0061 0.0000
-1.2671 5.6801 -1.7500 2.0000
8.8010 -1.4390 -0.8429 0.0000
0.0010 3.3282 0.8822 0.0000
-5.5757 -1.9021 2.0356 1.0000
-8.8001 0.1348 1.7954 0.0000
-6.2010 -2.1996 1.6545 0.0000
5.0277 -6.5996 1.4924 0.0000
0.0010 -3.3224 1.0679 0.0000
-5.8736 6.6004 -0.8423 0.0000
-5.4515 -1.0178 2.8595 1.0000
8.4060 -0.4196 3.5363 1.0000
-5.7447 1.7120 5.4027 1.0000
-4.0513 6.6004 0.6383 0.0000
8.2592 -6.5996 -0.6394 0.0000
-2.3535 -1.7409 2.1858 1.0000
-6.6586 -1.5217 2.3901 1.0000
-5.3824 -2.1996 -0.4265 0.0000
7.0069 2.2004 0.1980 0.0000
-2.4886 0.2808 -1.7500 2.0000
-7.6355 -2.1996 1.2634 0.0000
-1.3611 4.5538 3.6481 1.0000
-2.1311 5.2049 3.0415 1.0000
-8.7990 4.1860 0.8069 0.0000
2.0091 0.0550 3.2128 1.0000
0.0009 -4.5505 2.8455 1.0000
-8.7990 -1.6861 0.4068 0.0000
-3.3510 6.6004 0.5842 0.0000
0.0010 5.2247 -1.6814 0.0000
8.8010 0.9152 -0.9485 0.0000
0.0010 3.9552 1.5813 0.0000
3.3034 -6.5996 -1.1368 0.0000
1.0292 -2.5476 -1.7500 2.0000
8.8010 -3.3499 -0.2533 0.0000
-0.0000 2.2005 4.8854 1.0000
8.8010 -0.5812 -1.3656 0.0000
-1.9180 3.7276 4.4179 1.0000
1.5486 -6.5996 0.5355 0.0000
-7.4014 -2.1996 0.4181 0.0000
4.5796 2.2004 -0.9575 0.0000
8.8010 -5.1001 -0.4522 0.0000
-4.9040 -2.1764 1.7802 0.0000
-5.0428 -0.5759 3.2712 1.0000
-4.5208 5.0726 3.1648 1.0000
8.8010 -4.5380 -0.7301 0.0000
3.0799 1.4505 -1.7500 2.0000
0.0010 2.3038 -1.6925 2.0000
3.1234 -0.6988 -1.7500 2.0000
-8.4157 -2.1996 -1.2416 0.0000
-0.3295 -1.0045 -1.7500 2.0000
-6.1911 -2.1996 -1.2289 0.0000
-8.8001 3.1687 3.8935 1.0000
8.6147 -4.3216 3.3032 1.0000
5.8056 -1.2681 4.1149 1.0000
-3.0689 -2.1996 -1.0386 0.0000
-8.1568 -2.1996 1.2425 0.0000
4.4452 -4.2364 3.3613 1.0000
-7.6889 6.6004 0.4925 0.0000
8.8010 -6.2020 -1.1812 0.0000
3.8199 -5.1283 2.7531 1.0000
0.5484 -0.7452 3.7584 1.0000
-0.3989 -2.1996 -0.1763 0.0000
0.1093 2.2004 -0.2907 0.0000
8.8010 -4.2763 -1.3283 0.0000
-4.3734 3.6844 4.4581 1.0000
-8.1777 0.5085 4.2815 1.0000
8.8010 0.2817 1.8642 1.0000
-1.9198 0.1829 3.9782 1.0000
3.5951 -6.4001 1.8860 1.0000
-8.7990 -0.4496 -1.0567 0.0000
8.8010 -0.2972 1.7839 0.0000
-0.0148 3.0256 -1.7500 2.0000
0.0010 3.2117 -1.6726 2.0000
-8.7990 4.6653 0.2218 0.0000
1.6312 -4.7832 -1.7500 2.0000
-6.9736 -2.1996 -1.2584 0.0000
8.8010 -2.1548 3.4613 1.0000
4.9456 -0.1051 -1.7500 2.0000
5.8723 -4.8592 2.9366 1.0000
0.3537 1.2399 2.4049 1.0000
3.7796 2.2004 -1.0850 0.0000
-5.3232 2.2006 5.8405 1.0000
-6.8270 6.6004 0.7664 0.0000
-8.7990 2.0134 0.1332 0.0000
8.8010 -3.8418 1.3507 0.0000
4.0715 1.7969 2.0251 1.0000
-8.7990 5.7828 0.9425 0.0000
-6.6106 -2.1996 0.4347 0.0000
-8.1524 6.3184 2.0041 1.0000
8.7385 2.2004 0.1211 0.0000
-2.0522 6.4959 1.8388 1.0000
1.5126 -2.8019 -1.7500 2.0000
7.7207 -1.0349 3.9559 1.0000
-5.2524 -2.0987 1.8525 1.0000
-7.0309 6.6004 0.2680 0.0000
-7.3709 6.6004 -1.0190 0.0000
8.6325 2.2004 1.6690 0.0000
0.0010 4.2639 -0.6139 0.0000
0.0004 -1.3459 3.9186 1.0000
5.5346 2.2004 -0.1105 0.0000
7.4529 -0.8922 -1.7500 2.0000
-1.9663 6.6004 1.0521 0.0000
2.4395 -2.9576 4.2332 1.0000
-5.0245 6.4014 1.9269 1.0000
0.0002 3.2682 3.6628 1.0000
1.6768 2.2004 0.8307 0.0000
-0.8337 -1.5814 2.3345 1.0000
-7.6749 6.2166 2.0990 1.0000
2.9557 2.2004 0.3516 0.0000
-4.6642 0.8175 4.5694 1.0000
-8.7990 -0.7973 -0.8904 0.0000
7.3885 0.6515 -1.7500 2.0000
8.8010 -3.4003 3.5043 1.0000
8.8010 -0.8589 -0.0482 0.0000
0.0003 4.8019 2.0097 1.0000
2.7762 -6.5996 0.7117 0.0000
-8.7990 5.2830 0.9863 0.0000
7.4310 -1.4856 4.2632 1.0000
-0.2521 -1.0587 2.8214 1.0000
0.0008 -4.1332 2.9914 1.0000
-7.7298 1.9143 5.5912 1.0000
-6.2954 6.2810 2.0390 1.0000
-8.7852 6.3692 1.9569 1.0000
-4.3499 6.6004 -0.9042 0.0000
6.6562 0.6782 2.7878 1.0000
-8.8001 -0.8344 2.4622 1.0000
8.7811 2.2004 1.0247 0.0000
-7.3313 -2.0314 1.9152 1.0000
-3.6925 1.6160 5.3133 1.0000
6.4083 0.3792 2.9917 1.0000
0.0003 1.4536 3.4426 1.0000
0.0010 -3.5968 -1.5122 0.0000
5.4857 1.3213 2.3494 1.0000
-8.6442 -1.0240 2.8538 1.0000
-1.1912 4.6493 -1.7500 2.0000
3.1767 -3.4783 3.8781 1.0000
-1.4275 1.2137 4.9385 1.0000
-6.5845 -2.1996 -0.3708 0.0000
6.6411 -6.5996 0.9592 0.0000
-8.8001 0.1444 2.6415 1.0000
4.5007 -4.8068 2.9723 1.0000
-2.9004 3.1042 4.9986 1.0000
0.0010 -5.9777 -0.8283 0.0000
-8.7990 0.5866 -0.7873 0.0000
4.3353 -2.5469 -1.7500 2.0000
0.0889 -6.5996 -1.4574 0.0000
0.0003 4.1270 2.7028 1.0000
6.8601 1.4039 2.2931 1.0000
-6.5143 -0.9121 2.9580 1.0000
8.8010 -2.1349 -1.1488 0.0000
5.1889 -4.6422 3.0846 1.0000
2.0205 -6.5996 1.7200 0.0000
6.1721 -6.5253 1.8007 0.0000
-5.9045 0.7312 -1.7500 0.0000
-8.7990 3.3123 0.5838 0.0000
5.7275 -5.3719 -1.7500 2.0000
-5.9503 -2.1996 0.1616 0.0000
4.9818 -4.0784 -1.7500 2.0000
1.2587 -4.5663 3.1363 1.0000
1.5782 2.2004 -0.1077 0.0000
5.9993 -2.5029 4.5432 1.0000
-7.3395 5.2915 2.9609 1.0000
4.3978 2.2004 1.2523 0.0000
0.0001 -0.7895 3.2979 1.0000
-6.8978 1.3874 5.1004 1.0000
8.8010 1.8572 0.3445 0.0000
0.0109 -6.5833 1.7611 0.0000
8.8010 1.8494 -0.7099 0.0000
-4.0731 6.6004 -1.3775 0.0000
0.0010 6.6002 -1.3443 0.0000
-5.0118 -2.1996 1.2008 0.0000
6.6109 -6.1438 -1.7500 2.0000
2.1890 2.2004 0.3165 0.0000
-8.7990 1.5254 1.1623 0.0000
6.1723 -4.6303 3.0927 1.0000
-6.5847 2.3907 5.6634 1.0000
-8.7990 1.2395 1.2798 0.0000
-0.0323 4.7263 -1.7500 2.0000
-7.9777 1.7252 -1.7500 0.0000
0.0010 -6.2383 -1.6108 0.0000
-3.9123 -2.1996 0.4536 0.0000
-8.8001 -0.3891 2.2435 1.0000
0.0003 3.0706 2.6712 1.0000
